ply
format ascii 1.0
comment Mock 3DGS reconstruction - Generated for MVP demonstration
comment This file simulates a 3D point cloud reconstructed from images
element vertex 743
property float x
property float y
property float z
property uchar red
property uchar green
property uchar blue
property float nx
property float ny
property float nz
end_header
1.467170 -3.117010 2.299110 88 196 173 -.423568 .659656 -.257180
4.130220 -.453970 4.962150 125 117 39 -.133398 .949826 .032990
-4.419240 .996880 -3.587300 29 148 189 .301674 -.615162 .468000
-2.244180 3.171940 -1.412250 3 194 173 .507858 -.408980 .674184
-1.213270 4.202850 -.381330 68 84 217 -.740776 .342448 -.574390
2.544170 -2.040010 3.376110 106 202 34 .392070 -.524766 .558458
-1.791900 3.624220 -.959960 248 144 201 -.473618 .609606 -.307230
3.879970 -.704220 4.711600 159 254 134 -.542956 .540268 -.376568
3.532970 -1.051220 4.364900 62 3 187 -.492234 -.381330 .701894
-1.074710 4.341410 -.242780 139 55 40 .297462 -.619374 .463850
-2.264940 3.151180 -1.433000 94 186 33 .289222 -.627676 .455548
-2.306440 3.109680 -1.474510 229 162 191 .474470 -.442366 .640858
-1.379900 4.036220 -.547960 207 42 184 -.330608 .752616 -.164222
4.594710 .010520 -4.573660 87 74 224 .099886 -.816950 .266272
-3.252820 2.163300 -2.420890 243 137 91 .373148 -.543688 .539536
-1.886510 3.529310 -1.054880 126 53 166 -.715996 .367228 -.549608
2.668080 -1.916110 3.500010 217 107 29 .285622 -.631216 .452008
-2.324140 3.091980 -1.492210 1 179 23 -.138342 .944882 .028046
-4.443960 .972160 -3.612020 238 111 188 .359416 -.557422 .525802
-1.955170 3.460950 -1.123240 215 62 125 -.760492 .322732 -.594104
2.445600 -2.138590 3.277530 57 132 99 -.617176 .466048 -.450790
3.162170 -1.422010 3.994100 116 44 211 .321938 -.594898 .488326
-2.142560 3.273560 -1.310620 157 14 95 .146640 -.770196 .313028
-3.019050 2.397070 -2.187110 115 3 245 .016632 -.900206 .183018
-3.669090 1.746720 -2.837460 47 233 47 -.549730 .533494 -.383344
3.499400 -1.084790 4.331330 255 30 43 -.196510 .886714 -.030122
-4.734800 .681320 -3.902860 169 43 22 -.145300 .937924 .021088
-4.478750 .937070 -3.647120 254 20 91 .986692 .069794 -.847042
1.180910 -3.403280 2.012840 126 15 26 .834466 -.082370 -.999208
.420080 .974600 -3.609580 207 254 212 .318948 -.597950 .485274
-2.157820 3.258300 -1.325880 25 101 19 -.212746 .870478 -.046358
-4.815980 .599840 -3.984350 32 138 147 .195654 -.721184 .361980
-2.774290 2.641830 -1.942360 82 137 53 -.277078 .806146 -.110692
4.862660 .278480 -4.305710 32 123 122 -.700370 .382854 -.533984
2.746200 -1.838290 3.577830 23 165 69 -.873166 .210058 -.706780
1.882220 -2.701960 2.714160 22 14 199 .872920 -.043978 -.960816
.612040 -3.972140 1.443980 227 211 74 -.107640 .975584 .058748
-4.290450 1.125670 -3.458520 49 90 211 .926816 .009978 -.906858
.881830 -3.702360 1.713760 116 84 130 .590806 -.326030 .757194
-.798220 4.617900 .033720 1 155 222 .947080 .030242 -.886594
.983150 -3.601040 1.815080 221 240 227 .948056 .031220 -.885618
.988030 -3.596150 1.819660 251 27 116 .071198 -.845638 .237586
-3.396260 2.019860 -2.564320 236 78 105 -.694328 .388896 -.527940
2.776420 -1.807770 3.608050 252 3 174 .078340 -.838558 .244666
-3.360860 2.055260 -2.528920 125 182 11 .813958 -.102878 .980346
.317540 -4.266650 1.149470 161 99 96 .821466 -.095372 .987852
.355080 -4.229110 1.187010 42 153 4 -.870542 .212682 -.704154
1.895350 -2.688840 2.727280 239 51 240 -.316020 .767204 -.149634
4.667950 .083770 -4.500420 123 227 214 -.798700 .284524 -.632314
2.254240 -2.329940 3.086180 165 24 101 .995666 .078828 -.838070
1.225770 -3.358410 2.057710 137 212 48 -.933288 .149936 -.766900
1.581620 -3.002570 2.413550 38 53 247 .855280 -.061556 -.978394
.524150 -4.060030 1.356080 171 246 161 .201330 -.715568 .367656
-2.745910 2.670210 -1.913970 223 75 38 .227820 -.689018 .394146
-2.613460 2.802660 -1.781520 159 112 188 .617542 -.299296 .783928
-.664850 4.751270 .167080 159 249 31 -.746576 .336648 -.580188
2.515180 -2.069010 3.347110 97 191 25 .343180 -.573718 .509506
-2.036660 3.379460 -1.204720 45 217 247 -.809322 .273902 -.642934
2.201450 -2.382740 3.033380 122 160 83 .872188 -.044650 -.961486
.608690 -3.975500 1.440620 37 210 6 .050080 -.866758 .216466
-3.501850 1.914270 -2.670220 150 178 252 .429242 -.487596 .595628
-1.606040 3.810080 -.774110 233 207 107 .518112 -.398786 .684438
-1.162000 4.254120 -.330060 167 17 25 -.834834 .248390 -.668448
2.073880 -2.510300 2.905810 32 193 124 .971860 .055024 -.861814
1.107050 -3.477130 1.938990 207 255 161 .460188 -.456650 .626574
-1.451310 3.964810 -.619380 30 145 174 .988158 .071320 -.845516
1.188540 -3.395650 2.020470 247 89 23 .099764 -.817074 .266150
2.717210 -1.589870 3.826250 42 115 58 -.236672 .846552 -.070286
-4.935610 .480510 -4.103680 184 98 56 -.788264 .294960 -.621876
2.306740 -2.277450 3.138670 121 185 146 .781608 -.135290 .947934
.155490 -4.428700 .987420 255 47 86 .005340 -.911498 .171726
-3.725550 1.690570 -2.893620 97 11 85 .632556 -.284280 .798944
-.589780 4.826340 .242160 146 185 209 -.693290 .389934 -.526904
2.781300 -1.802890 3.613230 1 191 106 .905636 -.011262 -.928100
.775620 -3.808560 1.607560 99 95 205 -.828060 .255164 -.661672
2.107760 -2.476430 2.939690 126 160 112 .512192 -.404646 .678578
-1.191300 4.224820 -.359360 82 90 29 .670644 -.246194 .837030
-.399030 -4.983220 .432900 133 93 153 -.075534 -.992372 .090792
-4.130230 1.285890 -3.298290 210 122 251 .249122 -.667716 .415508
-2.506640 2.909480 -1.674710 168 133 179 .043000 -.873838 .209386
-3.537250 1.878560 -2.705620 133 33 246 .109652 -.807186 .276038
-3.203990 -2.649470 2.766650 216 176 232 -.989076 .094148 -.822688
1.302680 -3.281510 2.134610 207 80 82 -.924010 .159214 -.757622
1.628000 -2.956180 2.459940 8 74 126 -.472886 .610338 -.306498
3.883320 -.700860 4.715260 245 75 160 .538560 -.378278 .704886
-1.059760 4.356360 -.227830 190 29 155 -.095738 .987486 .070650
-4.230940 1.185180 -3.399000 53 30 89 -.223182 .860042 -.056796
-4.868170 .547950 -4.036230 27 133 220 -.303142 .780082 -.136754
4.732350 .147860 -4.436330 12 5 204 .924008 .007170 -.909666
.867790 -3.716400 1.699720 164 248 66 .670460 -.246376 .836848
-.399950 -4.984140 .431980 120 134 143 .268348 -.648488 .434736
-2.410510 3.005610 -1.578570 203 79 185 .442242 -.474594 .608630
-1.541040 3.875080 -.709100 250 194 96 .783074 -.133764 .949460
.162810 -4.421370 .994750 18 229 79 -.614796 .468428 -.448410
3.174070 -1.410110 4.006010 171 66 17 -.450546 .632618 -.284220
3.995020 -.589160 4.826960 59 143 210 -.133336 .949888 .033050
-4.418930 .997190 -3.587000 151 79 248 .854608 -.062228 -.979066
.520790 -4.063700 1.352420 224 253 107 -.421432 .661792 -.255044
4.140900 -.443290 4.972830 69 151 250 -.139074 .944150 .027314
-4.447620 .968500 -3.615690 101 250 111 -.989320 .093904 -.822932
1.301460 -3.282730 2.133390 9 167 42 -.910094 .173130 -.743706
1.697590 -2.886600 2.529520 42 176 135 -.747430 .335794 -.581042
2.510910 -2.073280 3.342840 162 138 141 .779290 -.137548 .945676
.144190 -4.440300 .975820 101 213 210 -.444258 .638966 -.277872
4.026760 -.557430 4.858690 37 134 140 .552842 -.364056 .719168
-.988350 4.427770 -.156410 3 108 179 -.490708 .592516 -.324322
3.794510 -.789670 4.626450 74 211 20 .528426 -.388410 .694814
-1.110120 4.306000 -.278180 145 128 109 .043488 -.873350 .209874
-3.534810 1.881000 -2.703180 150 191 117 -.014680 -.931518 .151706
-3.825650 1.590470 -2.993720 236 1 178 .766166 -.150670 .932554
.078580 -4.505610 .910510 243 149 133 -.260354 .822870 -.093968
4.946280 .362100 -4.222390 80 178 214 .089266 -.827572 .255652
-3.305920 2.110200 -2.473990 191 77 134 .186314 -.730522 .352702
-2.820980 2.595140 -1.989050 2 194 73 -.044772 -.961608 .121616
-3.976110 1.440010 -3.144170 71 202 233 .303872 -.612966 .470258
-2.232890 3.183230 -1.400960 166 132 123 -.513842 .569382 -.347454
3.678850 -.905340 4.510780 95 43 231 -.458420 .624804 -.292032
3.955960 -.628230 4.787890 250 107 90 .297340 -.619496 .463728
-2.265550 3.150570 -1.433920 102 127 124 .158420 -.758416 .324808
-2.960150 2.455970 -2.128210 145 47 20 -.711174 .372050 -.544786
2.692190 -1.892000 3.524120 248 227 80 .019684 -.897154 .186070
-3.654140 1.761980 -2.822200 204 197 180 -.788020 .295204 -.621694
2.307650 -2.276530 3.139590 42 196 147 .819330 -.097508 .985656
.344090 -4.240090 1.176030 22 148 219 -.058932 -.975770 .107454
-4.046910 1.369210 -3.215280 240 230 206 -.055880 -.972718 .110506
-4.031650 1.384470 -3.199720 49 9 166 .927364 .010528 -.906310
.884570 -3.699610 1.716200 44 96 65 -.527818 .555406 -.361432
3.608960 -.975220 4.440900 25 126 125 .508102 -.408736 .674488
-1.211740 4.204070 -.380110 116 161 66 .856378 -.060458 -.977296
.529640 -4.054540 1.361580 205 8 88 -.648672 .434552 -.482286
3.004690 -1.579800 3.836320 137 71 184 .434918 -.481918 .601306
-1.577960 3.838160 -.746030 240 169 206 .077486 -.839352 .243872
-3.364820 2.051300 -2.532890 31 75 168 .780448 -.136388 .946836
.149990 -4.434190 .981930 43 7 218 -.232644 .850580 -.066256
-4.915470 .500650 -4.083530 99 204 111 -.197242 .885982 -.030856
-4.738460 .677660 -3.906530 182 129 62 -.609730 .473494 -.443344
3.199400 -1.384780 4.031340 94 127 28 -.797298 .285926 -.630910
2.261570 -2.322620 3.093500 108 106 248 .916562 -.000276 -.917112
.830560 -3.753930 1.662190 41 149 7 .090792 -.826046 .257178
-3.298290 -2.743770 2.672350 95 171 14 -.179724 .903500 -.013338
-4.650870 .765250 -3.818940 144 141 155 .134616 -.782220 .301004
-3.079170 2.336950 -2.247240 189 23 210 .084504 -.832332 .250830
-3.330030 2.086090 -2.498100 150 81 237 .739370 -.177466 .905758
-.055400 -4.639580 .776540 142 68 66 -.568042 .515182 -.401656
3.407540 -1.176650 4.239470 240 143 140 .237524 -.679312 .403850
-2.564930 2.851190 -1.733000 140 151 46 .422956 -.493882 .589342
-1.637480 3.778640 -.805540 122 43 190 .964048 .047212 -.869686
1.067690 -3.516500 1.899620 40 235 85 .010588 -.906248 .176976
-3.699310 1.716810 -2.867370 50 61 254 -.845334 .237890 -.678946
2.021390 -2.562800 2.853320 122 252 139 -.100072 .983152 .066316
-4.252610 1.163510 -3.420670 58 252 110 -.406782 .676442 -.240396
4.214140 -.370040 -4.954530 167 127 174 .018584 -.898252 .184972
-3.659330 1.756490 -2.827700 239 128 174 .254004 -.662832 .420392
-2.482230 2.933590 -1.650600 14 134 244 .331826 -.585010 .498214
-2.093420 3.322700 -1.261490 24 67 39 -.402022 .681202 -.235634
4.237950 -.346240 -4.930420 48 167 213 -.628408 .454816 -.462082
3.105710 -1.478470 3.937650 193 200 206 .924314 .007476 -.909362
.869010 -3.715180 1.700940 46 3 154 -.107640 .975584 .058748
-4.290450 1.125670 -3.458520 50 212 242 -.043062 -.959900 .123324
-3.967560 1.448560 -3.135630 98 21 100 -.234780 .848444 -.068392
-4.926150 .489970 -4.094220 44 29 135 -.593006 .490218 -.426620
3.283020 -1.301160 4.114960 77 249 31 -.644460 .438764 -.478074
3.025750 -1.558430 3.857690 75 82 23 .364970 -.551868 .531356
-1.927400 3.488720 -1.095470 243 138 189 .697012 -.219826 .863398
-.267190 -4.851380 .564740 66 246 58 -.442428 .640796 -.276040
4.035920 -.548270 4.867850 100 133 178 .523972 -.392866 .690358
-1.132390 4.283730 -.300460 76 93 67 .486922 -.429916 .653308
-1.317640 4.098480 -.485710 251 152 128 -.919676 .163548 -.753290
1.649370 -2.934820 2.481300 4 204 137 .682790 -.234048 .849176
-.338300 -4.922490 -4.367970 161 1 223 .848750 -.068088 -.984986
.491190 -4.092990 1.323120 136 138 110 -.987794 .095430 -.821406
1.309090 -3.275100 2.141020 14 41 187 -.043612 -.960450 .122774
-3.970310 1.445810 -3.138380 137 108 24 -.789180 .294044 -.622792
2.302160 -2.282030 3.134090 225 103 34 .083040 -.833798 .249426
-3.337050 2.079070 -2.505120 193 23 121 -.397688 .685536 -.231300
4.259620 -.324570 -4.909060 11 194 222 -.354290 .728934 -.187904
4.476600 -.107890 -4.692070 225 15 18 .785270 -.131566 .951658
.174100 -4.410080 1.006040 221 119 64 -.636526 .446698 -.470138
3.065430 -1.518760 3.897360 238 90 153 -.625172 .458052 -.458786
3.122190 -1.462300 3.953820 182 135 116 -.766718 .316506 -.600330
2.414470 -2.169720 3.246400 182 43 109 -.073214 -.990052 .093172
-4.118330 1.297490 -3.286700 38 154 85 .559862 .670826 -.246072
4.185760 -.398420 -4.982610 185 252 119 .044586 -.872250 .210912
-3.529620 1.886500 -2.697690 7 253 146 .757560 -.159278 .923946
.035550 -4.548640 .867480 183 6 237 .883358 -.033540 -.950378
.664230 -3.919950 1.496160 210 131 172 .928830 .011992 -.904844
.891900 -3.692290 1.723830 202 233 19 .810112 -.106724 .976500
.298310 -4.286180 1.129940 63 146 14 -.558704 .524520 -.392316
3.454540 -1.129650 4.286470 180 15 233 .256752 -.660086 .423138
-2.468490 2.947630 -1.636560 242 155 81 -.700004 .383220 -.533618
2.748030 -1.836460 3.579660 197 5 107 .048676 -.868162 .215062
-3.508870 1.907250 -2.676940 190 221 111 -.721184 .362040 -.554796
2.642130 -1.942050 3.474070 136 235 207 -.030550 -.947388 .135836
-3.905000 1.511120 -3.073070 201 25 103 -.198768 .884456 -.032382
-4.746090 .670030 -3.914160 20 159 223 -.894834 .188390 -.728448
1.773880 -2.810300 2.605820 150 164 167 -.487290 .595934 -.320904
3.811300 -.772890 4.643230 185 80 104 -.644156 .439068 -.477768
3.026970 -1.557210 3.858910 190 243 57 -.869320 .213904 -.702934
1.901450 -2.682730 2.733390 100 166 82 -.597096 .486128 -.430708
3.262580 -1.321610 4.094510 222 160 129 -.519700 .563524 -.353314
3.649250 -.934940 4.481180 224 148 219 -.892942 .190282 -.726556
1.783340 -2.800840 2.615280 12 120 17 .354472 -.562366 .520858
-1.980200 3.435920 -1.148260 239 157 16 -.477036 .606188 -.310648
3.862880 -.721310 4.694810 199 3 219 .725394 -.191444 .891780
-.125280 -4.709770 .706350 201 4 114 -.783990 .299232 -.617604
2.328100 -2.256090 3.160030 63 184 203 -.374738 .708486 -.208350
4.374370 -.209820 -4.794010 126 78 114 -.907774 .175450 -.741388
1.709180 -2.875000 2.541120 112 181 147 -.535020 .548202 -.368634
3.572950 -1.011240 4.404880 89 245 31 -.738762 .344462 -.572376
2.554240 -2.029940 3.386180 94 169 39 .413616 -.503220 .580004
-1.684170 3.731950 -.852230 45 63 66 .292396 -.624502 .458722
-2.290570 3.125550 -1.458640 120 97 65 .474776 -.442062 .641162
-1.378370 4.037440 -.546740 51 155 188 -.655814 .427410 -.489426
2.968990 -1.615200 3.800920 231 10 226 -.187598 .895564 -.021272
-4.690550 .725570 -3.858610 236 232 222 .802422 -.114414 .968810
.259860 -4.324330 1.091790 87 50 169 .454022 -.462876 .620348
-1.482440 3.933680 -.650510 25 156 21 .990600 .073762 -.843074
1.200750 -3.383740 -1.719880 126 6 131 -.271890 .811334 -.105504
4.888600 .304420 -4.279770 200 161 30 .237220 -.679618 .403606
-2.566150 2.849970 -1.734220 108 92 238 -.816036 .267188 -.649710
2.167570 -2.416610 2.999510 18 98 166 -.421310 .661914 -.254922
4.141510 -.442680 4.973440 100 152 244 .023712 -.893126 .190098
-3.633690 1.782430 -2.801760 238 92 246 .396342 -.520494 .562730
-1.770540 3.645580 -.938600 213 92 135 -.956482 .126742 -.790094
1.465650 -3.118840 2.297280 79 51 35 .110628 -.806208 .277016
-3.199110 2.217010 -2.367170 169 176 215 -.081576 -.998414 .084810
-4.160140 1.255980 -3.328200 106 23 218 .879940 -.036958 -.953796
.647140 -3.937050 1.479070 1 255 241 .688344 -.228494 .854730
-.310530 -4.894720 .521100 205 1 186 -.620046 .463178 -.453658
3.147830 -1.436360 3.979760 32 25 149 -.783868 .299356 -.617482
2.328710 -2.255480 3.160640 179 14 228 .892268 -.024568 -.941406
.709090 -3.875090 1.541030 6 35 40 -.035128 -.952026 .131198
-3.928190 1.487920 -3.096260 186 1 27 .860164 -.056674 -.973510
.548570 -4.035620 1.380500 21 23 54 -.331096 .752128 -.164710
4.592570 .008390 -4.575800 231 179 182 .789910 -.126928 .956296
.197300 -4.387190 1.028930 178 63 214 -.134558 .948666 .031830
.713670 1.268500 -3.315690 152 253 51 -.577564 .505660 -.411176
3.360240 -1.223950 4.192170 191 211 243 .622486 -.294352 .788872
-.639830 4.776290 .192110 212 94 31 .770928 -.145910 .937314
.102380 -4.481800 .934320 99 163 72 -.827694 .255530 -.661368
2.109280 -2.474900 2.941220 34 105 187 .395366 -.521470 .561754
-1.775720 3.640400 -.943790 118 119 140 .285926 -.630910 .452252
-2.322920 3.093200 -1.490990 189 195 128 -.701774 .381450 -.535388
2.739180 -1.845000 3.571120 150 127 36 .631030 -.285806 .797356
-.597400 4.818720 .234530 240 55 116 .219214 -.697624 .385600
-2.656180 2.759940 -1.824250 165 23 88 -.731560 .351664 -.565234
2.589950 -1.994240 3.421880 217 39 236 -.851192 .232032 -.684806
1.992090 -2.592090 2.824030 64 165 219 .798088 -.118748 .964476
.238190 -4.345990 1.070130 220 105 46 .150730 -.766108 .317116
-2.998600 2.417520 -2.166670 125 85 32 -.301432 .781792 -.135046
4.740890 .156710 -4.427480 155 81 17 -.345012 .738212 -.178626
4.522990 -.061190 -4.645380 223 13 222 .376994 -.539842 .543382
-1.867280 3.548840 -1.035350 35 106 140 -.978760 .104464 -.812374
1.354250 -3.229930 2.185880 109 194 172 .180944 -.735894 .347330
-2.847530 2.568590 -2.015910 179 64 217 .642688 -.274148 .809014
-.539110 4.877010 .292820 79 28 147 .797784 -.119054 .964170
.236360 -4.347820 1.068300 74 29 137 .891232 -.025606 -.942504
.703600 -3.880590 1.535530 84 6 25 -.929808 .153416 -.763482
1.598710 -2.985480 2.430640 215 161 206 -.203834 .879390 -.037448
-4.771420 .644700 -3.939490 92 163 5 -.979554 .103670 -.813166
1.350290 -3.233900 2.182220 198 177 185 -.782404 .300820 -.616018
2.336030 -2.248150 3.167970 114 190 240 -.458176 .625048 -.291788
3.957180 -.627010 4.789110 65 254 64 .179296 -.737542 .345682
-2.855770 2.560040 -2.024150 27 168 94 -.458420 .624744 -.292094
3.955650 -.628530 4.787590 89 58 79 -.290750 .792474 -.124364
4.794300 .210110 -4.374380 35 40 246 -.950622 .132602 -.784236
1.494940 -3.089240 2.326570 246 182 40 -.248270 .834954 -.081944
-4.993900 .422220 -4.161970 248 231 20 -.307474 .775748 -.141088
4.710680 .126490 -4.457690 61 255 226 -.791926 .291298 -.625538
2.288430 -2.295760 3.120360 74 127 195 -.269266 .813958 -.102878
4.901730 .317540 -4.266650 204 176 202 .694814 -.222024 .861200
-.278180 -4.862370 .553750 141 22 229 .294778 -.622060 .461164
-2.278360 3.137760 -1.446430 2 147 238 -.088168 .995056 .078218
-4.193100 1.223020 -3.361160 142 39 21 .354350 -.562488 .520736
-1.980500 3.435620 -1.148570 40 206 28 .385722 -.531176 .552048
-1.823940 3.592180 -.992010 56 235 131 -.240334 .842890 -.073948
-4.953920 .462200 -4.121990 54 165 28 .275428 -.641408 .441816
-2.375110 3.041010 -1.543480 70 135 225 .200536 -.716300 -.383528
3.498480 -1.085700 4.330420 138 33 233 .916074 -.000764 -.917602
.828110 -3.756380 1.659740 107 222 15 .780326 -.136510 .946714
.149380 -4.434800 .981320 201 151 64 .989134 .072298 -.844540
1.193120 -3.391070 2.025050 52 185 45 -.893308 .189854 -.726982
1.781210 -2.802980 2.613140 202 225 179 -.113500 .969724 .052888
-4.320050 1.096070 -3.488120 192 173 70 .595446 -.321392 .761832
-.775020 4.641100 .056910 46 208 37 .262916 -.653922 .429242
-2.437980 2.978140 -1.606040 244 227 159 .186436 -.730400 .352824
-2.820070 2.596050 -1.988130 30 26 92 .477888 -.438948 .644276
-1.362810 4.053010 -.531180 211 164 124 -.922606 .160618 -.756220
1.635020 -2.949160 2.466960 65 209 11 -.080662 -.997498 .085726
-4.155560 1.260560 -3.323620 50 98 211 .944882 .028046 -.888792
.972160 -3.612020 1.804100 226 38 131 .036530 -.880308 .202916
-3.569600 1.846520 -2.737670 207 152 75 .131138 -.785700 .297524
-3.096570 2.319550 -2.264630 235 8 236 -.968262 .114962 -.801874
1.406750 -3.177440 2.238680 157 171 112 .194494 -.722344 .360880
-2.779780 2.636340 -1.947850 22 221 175 -.436386 .646838 -.269998
4.066130 -.518060 4.898060 196 183 10 -.956726 .126498 -.790338
1.464430 -3.119760 2.296360 134 102 129 .997070 .080232 -.836604
1.233100 -3.351090 2.064720 158 241 249 .105990 -.810848 .272376
-3.222300 2.193820 -2.390370 166 142 45 .450360 -.466476 .616748
-1.500450 3.915670 -.668510 191 2 255 .375408 -.541490 .541734
-1.875520 3.540600 -1.043590 0 178 7 -.113378 .969846 .053010
-4.319140 1.096980 -3.487200 200 134 99 .458296 -.458542 .624682
-1.460770 3.955350 -.628840 108 171 185 -.477524 .605700 -.311138
3.860430 -.723750 4.692370 150 149 83 -.288248 .794914 -.121922
4.806510 .222320 -4.361860 193 155 193 .637378 -.279458 .803704
-.565670 4.850450 .266270 13 1 107 -.099338 .983886 .067048
-4.248940 1.166870 -3.417320 246 70 221 -.794550 .288674 -.628224
2.275000 -2.309190 3.106930 134 172 201 .326090 -.590748 .492476
-2.121800 3.294320 -1.289870 77 142 60 -.606008 .477216 -.439620
3.218020 -1.366170 4.049950 181 35 163 .788750 -.128088 .955136
.191500 -4.392690 1.023430 6 63 28 .623278 -.293558 .789666
-.635860 4.780260 .196080 126 101 45 .828118 -.088718 .994506
.388340 -4.195840 1.220280 168 76 84 -.682242 .400982 -.515856
2.836840 -1.747340 3.668780 14 121 80 -.842342 .240882 -.675956
2.036340 -2.547840 2.868280 221 58 206 .443586 -.473252 .609972
-1.534320 3.881800 -.702390 55 69 140 .853204 -.063632 -.980530
.513470 -4.070720 1.345400 124 58 249 .170994 -.745842 .337382
-2.897580 2.518530 -2.065650 226 193 246 .394024 -.522814 .560410
-1.782130 3.633680 -.950500 54 81 200 -.718926 .364298 -.552538
2.653430 -1.930760 3.485060 11 124 41 .857416 -.059420 -.976258
.534830 -4.049350 1.366770 252 118 176 .992308 .075472 -.841426
1.208990 -3.375200 2.040920 172 13 175 .169590 -.747246 .335978
-2.904300 2.511820 -2.072360 20 141 195 .472334 -.444504 .638720
-1.390890 4.025230 -.558950 130 231 42 -.919004 .164220 -.752678
1.652720 -2.931460 -2.376630 133 174 219 -.798212 .285012 -.631826
2.256990 -2.327190 3.088930 137 168 63 .227454 -.689384 .393840
-2.615290 2.800830 -1.783350 59 20 121 .061494 -.855344 .227880
-3.444780 1.971340 -2.612850 171 217 20 .769524 -.147314 .935850
.095060 -4.489130 .926990 9 175 184 -.717400 .365824 -.551012
2.661060 -1.923130 3.492990 239 187 231 .415508 -.501328 .581896
-1.674710 3.741410 -.842770 126 34 142 .644214 -.272622 .810602
-.531180 4.884940 .300750 48 152 252 .549302 -.367536 .715688
-1.005740 4.410070 -.174110 43 190 43 .766472 -.150366 .932858
.080110 -4.504080 .912040 32 174 252 .947140 .030304 -.886534
.983450 -3.601040 1.815080 190 184 52 .296364 -.620472 .462752
-2.270430 3.145390 -1.438800 38 168 121 -.563770 .519454 -.397382
3.428900 -1.155280 4.260840 41 168 59 .282204 -.634634 .448590
-2.341230 3.074580 -1.509600 91 78 53 -.104344 .978880 .062044
-4.273970 1.142150 -3.442040 173 22 141 .847590 -.069248 -.986084
.485700 -4.098490 1.317630 168 202 91 .984678 .067842 -.848996
1.171140 -3.413040 2.003080 124 155 92 -.604420 .478804 -.438034
3.225950 -1.358230 4.057580 215 179 200 -.097630 .985594 .068758
-4.240400 1.175720 -3.408460 85 233 206 .726492 -.190344 .892880
-.119790 -4.703980 .712140 34 194 29 .055634 -.861202 .222022
-3.474080 1.941740 -2.642450 65 178 112 -.614248 .468976 -.447922
3.176510 -1.407670 4.008450 112 223 51 -.507004 .576218 -.340618
3.713030 -.871160 4.544960 92 67 40 -.975648 .107576 -.809260
1.369820 -3.214370 2.201750 108 220 27 -.899840 .183384 -.733452
1.748860 -2.835330 2.580790 85 81 142 .299110 -.617788 .465436
-2.257000 3.159120 -1.425070 30 37 217 .593492 -.323344 .759880
-.784790 4.631030 .046840 4 77 101 -.382428 .700796 -.216042
4.335910 -.248270 -4.832460 158 44 130 -.951416 .131808 -.785028
1.490980 -3.093210 2.322910 66 54 129 -.406904 .676258 -.240578
4.213230 -.370960 -4.955140 41 78 83 -.192360 .890864 -.025972
-4.714050 .702070 -3.882110 243 190 84 -.811396 .271766 -.645070
2.190770 -2.393420 3.022700 157 151 10 .894710 -.022126 -.938964
.721300 -3.862890 1.553230 220 74 14 -.289714 .793510 -.123326
4.799490 .215300 -4.368880 29 125 131 -.953124 .130100 -.786738
1.482430 -3.101750 2.314370 183 10 229 .792168 -.124670 .958494
.208280 -4.375900 1.040220 119 148 101 -.127538 .955686 .038850
-4.390250 1.025870 -3.558310 169 59 253 -.271708 .811456 -.105382
4.889210 .305030 -4.279160 125 205 104 .907650 -.009188 -.926024
.786000 -3.798190 1.617930 7 90 19 -.805414 .277808 -.639028
2.220980 -2.363510 3.052610 115 177 117 .702626 -.214210 .869014
-.239420 -4.823610 .592510 4 202 212 .814386 -.102452 .980772
.319680 -4.264510 1.151610 58 191 180 .775322 -.141516 .941708
.124360 -4.459830 .956290 201 62 133 -.755060 .328164 -.588734
2.472450 -2.111730 3.304390 229 215 64 -.582446 .500716 -.416120
3.335520 -1.248670 4.167450 0 228 99 .242896 -.673942 .409282
-2.537770 2.878350 -1.705840 225 86 29 .663258 -.253580 .829644
-.435960 4.980160 .395970 215 35 242 -.494920 .588304 -.328594
3.773150 4.327980 -.256510 197 78 163 -.729362 .353862 -.563036
2.600930 -1.983250 3.432870 13 114 4 .731314 -.185524 .897700
-.095680 -4.679870 .736250 151 254 118 -.208472 .874752 -.042086
-4.794620 .621500 -3.962990 128 133 71 -.186012 .897212 -.019624
-4.682310 .733810 -3.850370 255 126 201 .459394 -.457442 .625782
-1.455280 3.960840 -.623350 91 239 158 .074312 -.842526 .240698
-3.381000 2.035120 -2.549060 196 48 124 -.863462 .219762 -.697074
1.930750 -2.653440 2.762680 207 228 137 -.512864 .570360 -.346478
3.683730 -.900450 4.515670 135 122 88 .196812 -.720024 .363200
-2.768190 2.647930 -1.936250 1 189 110 .860956 -.055880 -.972718
.552530 -4.031650 1.384470 144 214 112 -.015046 -.931884 .151280
-3.827790 1.588330 -2.995850 142 119 123 -.787164 .296060 -.620778
2.312230 -2.271960 3.144160 51 60 112 .472272 -.444564 .638660
-1.390890 4.025230 -.558950 220 55 132 .865352 -.051546 -.968384
.574200 -4.009980 1.406140 18 111 105 -.667410 .415814 -.501024
2.911000 -1.673180 3.742940 9 162 255 .319924 -.596912 .486312
-2.152630 3.263490 -1.320690 71 176 84 -.603810 .479414 -.437422
3.229010 -1.355180 4.060940 55 134 14 -.744744 .338480 -.578358
2.524330 -2.059850 3.356270 65 241 101 -.475082 .608142 -.308696
3.872640 -.711540 4.704580 146 40 60 .090304 -.826534 .256690
-3.300730 2.115390 -2.468800 207 114 228 -.529710 .553514 -.363324
4.431130 -4.737240 .678880 47 51 86 .461286 -.455550 .627674
-1.445820 3.970300 -.613880 177 113 36 .227332 -.689506 .393718
-2.615590 2.800530 -1.783660 199 31 131 .428144 -.488694 .594530
-1.611530 3.804580 -.779600 176 86 210 -.461166 .622058 -.294780
3.942220 -.641960 4.774160 212 128 140 .962522 .045624 -.871212
1.060060 -3.524130 1.891990 255 131 180 .236364 -.680472 .402752
-2.570430 2.845690 -1.738490 149 166 242 -.937988 .145236 -.771600
1.558120 -3.026070 2.390050 123 171 143 .820184 -.096654 .986570
.348670 -4.235520 1.180600 15 117 67 .881344 -.035494 -.952392
.654160 -3.930030 1.486090 7 97 202 -.729730 .353494 -.563342
2.599410 -1.984780 3.431040 250 87 212 -.136084 .947140 .030304
-4.432670 .983450 -3.600730 7 62 9 -.148778 .934446 .017608
-4.496140 .919980 -3.664210 69 188 188 .734426 -.182410 .900814
-.080120 -4.664300 .751820 218 205 214 .338236 -.578602 .504622
-2.061070 3.355050 -1.229140 141 126 206 -.894162 .189062 -.727776
1.776940 -2.807250 2.608870 189 32 22 -.582386 .500778 -.416060
3.335820 -1.248360 4.167760 191 44 229 -.603626 .479598 -.437240
3.229620 -1.354570 4.061550 114 183 212 .993956 .077120 -.839718
1.217530 -3.366650 2.049470 191 6 187 -.789118 .294106 -.622732
2.302460 -2.281720 3.134400 176 39 174 -.726066 .357096 -.559740
2.617410 -1.966770 3.449350 199 39 32 .091096 -.825802 .257422
-3.297070 2.119050 -2.465140 33 158 227 .539170 .650134 -.266702
4.082610 -.501880 4.914240 222 55 81 -.659232 .423992 -.492844
2.951900 -1.632290 3.783830 115 53 218 .247962 -.668876 .414348
-2.512440 2.903680 -1.680510 145 163 195 .000762 -.916076 .167148
-3.748440 1.667680 -2.916510 206 182 151 -.983582 .099580 -.817256
1.329840 -3.254350 2.161770 220 32 139 .715566 -.201270 .881954
-.174420 -4.758600 .657520 170 58 111 -.125768 .957456 .040558
-4.381390 1.034730 -3.549460 223 9 97 -.361126 .722098 -.194800
4.442120 -.142070 -4.726250 222 205 13 .387370 -.529466 .553758
-1.815400 3.600720 -.983460 212 213 198 -.105198 .978026 .061188
-4.278240 1.137880 -3.446310 92 250 122 -.965088 .118136 -.798700
1.422620 -3.161570 2.254550 99 192 205 .714712 -.202126 .881098
-.178690 -4.762880 .653240 242 236 194 .875300 -.041536 -.958374
.624250 -3.960240 1.455880 72 88 168 .277138 -.639700 -.528796
2.772140 -1.812040 3.604080 14 142 121 -.854978 .228246 -.688590
1.973170 -2.611020 2.805100 226 134 218 -.723808 .359416 -.557422
2.629010 -1.955480 3.460640 86 192 36 -.492966 .590196 -.326640
3.782920 -.801270 4.614850 42 87 195 .074860 -.841976 .241248
-3.377950 2.038170 -2.546010 144 171 79 -.808040 .275184 -.641714
2.207550 -2.376630 3.039490 29 133 227 .692434 -.224404 .858820
-.290080 -4.874270 .541850 51 182 228 -.333050 .750174 -.166662
4.582810 -.001380 -4.585870 160 154 253 -.756524 .326700 -.590138
2.465130 -2.119060 3.297060 149 164 244 .943418 .026580 -.890256
.964840 -3.619350 1.796770 111 33 13 .037934 -.878904 .204320
-3.562580 1.853540 -2.730650 138 232 16 -.525682 .557542 -.359296
3.619640 -.964540 4.451270 134 57 172 -.378278 .704946 -.211892
4.356360 -.227830 -4.812010 3 48 238 .858210 -.058628 -.975464
.538800 -4.045390 1.370730 53 146 78 -.335308 .747916 -.168982
4.571210 -.012980 -4.597160 224 186 227 -.979676 .103548 -.813288
1.349680 -3.234510 2.181610 178 145 132 .540756 -.376080 .707144
-1.048470 4.367650 -.216530 15 235 130 -.821468 .261756 -.655080
2.140720 -2.443470 2.972650 240 53 44 -.310038 .773186 -.143652
4.697860 .113680 -4.470510 185 66 90 .443098 -.473740 .609484
-1.536760 3.879360 -.704830 251 243 48 -.869564 .213660 -.703178
1.900230 -2.683960 2.732160 7 157 169 .100496 -.816340 .266884
-3.249770 2.166350 -2.417830 43 160 68 .546554 -.370282 .712942
-1.019480 4.396640 -.187540 197 107 134 .236182 -.680656 .402568
-2.571340 2.844780 -1.739410 247 33 193 -.781428 .301796 -.615040
2.340920 -2.243270 3.172850 236 61 196 .361308 -.555530 .527694
-1.945710 3.470410 -1.113780 28 122 145 .184544 -.732292 .350932
-2.829530 2.586590 -1.997590 219 216 163 .631580 -.285258 .797966
-.594350 4.821770 .237580 133 121 202 .165928 -.750908 .332316
-2.922610 2.493510 -2.090680 199 180 14 .809930 -.106908 .976316
.297400 -4.286790 1.129330 12 8 105 -.259560 .823664 -.093174
4.950250 .366060 -4.218120 169 137 236 .120882 -.795954 .287270
-3.147840 2.268280 -2.315900 16 237 71 -.807368 .275856 -.640982
2.211210 -2.372970 3.043150 183 96 213 .766044 -.150792 .932432
.077970 -4.506220 .909900 120 134 70 .729056 -.187782 .895382
-.107280 -4.691460 .724660 39 63 43 .422040 -.494798 .588426
-1.642050 3.774070 -.810120 144 185 66 .018524 -.898314 .184910
-3.659630 1.756490 -2.827700 204 94 103 .238806 -.678030 .405194
-2.558220 2.857900 -1.726280 243 58 73 .079500 -.837338 .245886
-3.354750 2.061370 -2.522820 208 158 18 .461470 -.455368 .627856
-1.444900 3.971220 -.612970 80 211 51 -.628956 .454268 -.462570
3.103270 -1.480920 3.935200 150 135 204 -.188696 .894528 -.022310
-4.695740 .720080 -3.864110 209 73 126 .071992 -.844844 .238380
-3.392290 2.023830 -2.560360 143 22 76 .678762 -.238076 .845148
-.358440 -4.942630 .473490 114 32 41 -.321574 .761650 -.155188
4.639880 .055690 -4.528490 123 54 56 .756218 -.160620 .922604
.028530 -4.555660 .860460 132 71 223 .989012 .072176 -.844662
1.192810 -3.391370 2.024750 121 130 82 -.281840 .801384 -.115452
4.838860 .254670 -4.329510 50 107 172 .007904 -.908934 .174290
-3.712730 1.703390 -2.880800 204 207 62 -.306010 .777214 -.139624
4.718000 .133820 -4.450370 195 144 26 .044404 -.872434 .210790
-3.530230 1.885890 -2.698300 63 141 253 -.680228 .402934 -.513902
2.846610 -1.737580 3.678540 237 22 96 -.936462 .146762 -.770136
1.565440 -3.018740 2.397380 149 254 197 -.142736 .940488 .023590
-4.466240 .949880 -3.634300 112 88 17 -.097690 .985472 .068636
-4.241010 1.175110 -3.409080 96 216 222 .971678 .054840 -.861996
1.106140 -3.478350 1.937770 223 140 105 -.945800 .137424 -.779414
1.519050 -3.065130 2.350990 55 194 186 .022064 -.894774 .188450
-3.641930 1.774190 -2.810300 54 130 37 -.901976 .181188 -.735650
1.737870 -2.846310 2.569810 33 220 80 .887020 -.029818 -.946654
.682850 -3.901340 1.514780 174 125 146 .246008 -.670828 .412396
-2.522510 2.893610 -1.690580 182 40 137 -.829280 .253944 -.662894
2.101650 -2.482840 2.933280 244 52 50 -.325664 .757560 -.159338
4.619430 .035240 -4.548940 61 142 73 .867610 -.049228 -.966126
.585490 -3.998690 1.417430 169 200 43 -.990236 .092928 -.823910
1.296570 -3.287610 2.128510 210 215 76 -.053012 -.969848 .113376
-4.017310 1.398510 -3.185680 220 38 88 .344522 -.572314 .510910
-2.029640 3.386480 -1.197700 91 199 243 -.383650 .699574 -.217262
4.329810 -.254380 -4.838560 208 53 181 -.821590 .261634 -.655264
2.139800 -2.444390 2.971730 215 78 191 .966734 .049896 -.866940
1.081420 -3.502770 1.913350 89 190 127 .495772 -.421064 .662160
-1.273390 4.142730 -.441460 67 97 254 .062226 -.854610 .228614
-3.441120 1.975000 -2.609180 147 234 62 -.475754 .607470 -.309368
3.869280 -.714900 4.701220 52 239 250 -.953186 .130038 -.786798
1.482130 -3.102060 2.314060 180 220 151 -.655508 .427716 -.489122
2.970510 -1.613670 3.802450 207 33 178 -.741692 .341532 -.575366
2.539290 -2.044900 3.371220 89 155 141 -.829342 .253882 -.662954
2.101350 -2.482840 2.933280 204 186 221 -.585560 .497664 -.419172
3.320260 -1.263930 4.152190 117 116 162 -.443038 .640186 -.276652
4.032860 -.551320 4.864800 163 87 199 .417706 -.499132 .584092
-1.663720 3.752400 -.831790 199 127 253 -.250710 .832514 -.084324
4.994500 .410320 -4.173870 14 217 74 .959104 .042268 -.874570
1.043270 -3.540920 1.875200 138 223 114 -.353252 .729972 -.186866
4.481790 -.102700 -4.686890 155 69 244 -.352154 .731070 -.185768
4.487280 -.096900 -4.681090 188 5 40 .116366 -.800470 .282752
-3.170420 2.245700 -2.338490 198 224 20 .590258 -.326580 .756644
-.800960 4.614850 .030670 40 241 50 -.509996 .573228 -.343608
3.697770 -.886420 4.529700 6 67 71 -.025118 -.941954 .141270
-3.877840 1.538280 -3.045900 29 74 75 -.532580 .550584 -.366254
3.584850 -.999330 4.416790 177 208 186 .790948 -.125890 .957334
.202490 -4.382010 1.034110 116 202 165 -.895384 .187840 -.728996
1.771140 -2.813050 2.603070 151 158 58 -.947142 .136082 -.780756
1.512340 -3.071850 2.344270 86 72 99 .497176 -.419662 .663562
-1.266680 4.149440 -.434740 210 222 210 .262732 -.654104 .429120
-2.438590 2.977530 -1.606650 224 108 48 -.578602 .504622 -.412214
3.355050 -1.229140 4.186680 22 68 128 -.462020 .621142 -.295694
3.937650 -.646540 4.769580 155 206 26 .832758 -.084080 .999144
.411540 -4.172650 1.243470 134 248 70 .141392 -.775446 .307778
-3.045290 2.370830 -2.213360 86 16 153 .804802 -.112034 .971190
.271760 -4.312420 1.103700 218 33 163 .133456 -.783380 .299844
-3.084970 2.330850 -2.253340 241 51 100 -.001740 -.918578 .164646
-3.760950 1.655170 -2.929020 89 3 64 -.709832 .373392 -.543444
2.698900 -1.885290 3.530830 22 55 139 .053010 -.863828 .219396
-3.487200 1.928920 -2.655570 246 70 79 .286048 -.630788 .452436
-2.322010 3.094110 -1.490070 239 200 232 .139010 -.777826 .305398
-3.057200 2.358920 -2.225260 149 228 229 -.849544 .233680 -.683158
2.000330 -2.583850 2.832270 95 130 224 .022002 -.894834 .188390
-3.642240 -3.087720 2.328400 53 206 106 -.043978 -.960816 .122408
-3.972140 -2.585690 .464640 68 17 31 -.099644 .983580 .066682
.888240 -3.695950 1.720170 158 69 197 .820856 -.095982 .987242
.352030 -4.232160 1.183960 207 65 158 .991270 .074434 -.842404
1.204100 -3.380080 2.036040 198 128 235 .634022 -.282878 .800346
-.582450 4.833670 .249480 247 178 61 -.163306 .919918 .003082
-4.568780 .847340 -3.736840 255 19 13 -.202552 .880672 -.036166
-4.765010 .651110 -3.933080 138 204 189 -.575794 .507430 -.409406
3.369090 -1.215400 4.200720 181 51 102 -.909056 .174168 -.742668
1.702780 -2.881410 2.534710 112 42 210 -.772088 .311136 -.605702
2.387610 -2.196880 3.219240 66 201 128 .084078 -.832760 .250464
-3.331860 2.084260 -2.499930 29 148 173 -.916564 .166600 -.750238
1.664930 -2.919250 2.496870 32 245 105 -.900266 .182896 -.733940
1.746420 -2.837770 2.578350 58 66 46 -.443526 .639698 -.277140
4.030420 -.553760 4.862360 132 110 43 -.794306 .288918 -.627920
2.276220 -2.307970 3.108150 31 248 154 -.716668 .366556 -.550280
2.664720 -1.919470 3.496650 38 233 137 .131992 -.784846 .298378
-3.092290 2.323830 -2.260360 132 67 136 .134982 -.781854 .301370
-3.077340 2.338780 -2.245710 195 95 210 .862482 -.054354 -.971192
.560160 -4.024020 1.392100 155 216 108 .267982 -.648856 .434368
-2.412340 3.003780 -1.580410 157 243 59 -.314066 .769156 -.147680
4.677720 .093530 -4.490650 108 233 221 .647082 -.269754 .813470
-.516840 4.899280 .314790 253 204 43 -.538256 .544968 -.371870
3.556770 -1.027720 4.388400 47 234 143 -.799190 .283974 -.632864
2.251800 -2.332380 3.083740 139 21 99 .175510 -.741326 .341898
-2.874700 2.541420 -2.042760 251 26 153 -.169226 .913998 -.002840
-4.598380 .817740 -3.766450 249 3 210 .782708 -.134130 .949094
.161290 -4.422900 .993220 244 206 119 .271888 -.644948 .438276
-2.392810 3.023010 -1.561180 81 150 172 -.891356 .191868 -.724968
1.791280 -2.792910 2.623210 238 85 247 -.439804 .643420 -.273416
4.049040 -.535150 4.880970 226 111 246 -.718438 .364786 -.552050
2.655870 -1.928320 3.487800 28 226 226 .679798 -.237038 .846186
-.353260 -4.937440 .478680 167 232 156 .562912 -.353924 .729238
-.937990 4.478130 -.106060 57 234 40 -.416610 .666614 -.250222
4.165010 -.419180 4.996940 152 94 214 -.483688 .599536 -.317302
3.829610 -.754580 4.661540 92 214 219 -.782526 .300698 -.616140
2.335420 -2.248760 3.167360 74 70 102 .935482 .018646 -.898192
.925160 -3.659330 1.756790 75 239 52 -.854854 .228370 -.688530
1.973470 -2.610710 2.805410 198 132 239 .586230 -.330608 .752554
-.821410 4.594710 .010520 14 254 129 -.392682 .690542 -.226296
4.284340 -.299850 -4.884030 119 31 125 -.634146 .449078 -.467758
3.077330 -1.506860 3.909260 18 237 163 -.859616 .223608 -.693228
1.949670 -2.634520 2.781600 178 66 241 .676808 -.240030 .843194
-.368210 -4.952400 .463720 21 106 140 .926022 .009124 -.907714
.877550 -3.706630 1.709490 21 53 236 -.580372 .502852 -.413984
3.346200 -1.237990 4.178130 188 93 219 .639088 -.277750 .805474
-.556820 4.859300 .275120 214 167 117 .773490 -.143346 .939878
.115200 -4.468980 .947140 126 181 138 -.567858 .515366 -.401472
3.408760 -1.175730 4.240390 181 131 103 .596178 -.320658 .762564
-.771360 4.644760 .060570 67 213 71 -.405744 .677480 -.239358
4.219030 -.365160 -4.949340 50 50 112 -.395308 .687916 -.228920
4.271520 -.312670 -4.897160 235 160 236 -.891416 .191808 -.725030
1.790970 -2.793210 2.622910 58 226 32 -.776362 .306862 -.609974
2.366250 -2.217940 3.198180 166 0 60 .546554 -.370282 .712942
-1.019480 4.951170 -3.940100 94 92 100 .128330 -.788508 .294716
-3.110600 2.305520 -2.278670 175 93 196 .481368 -.435470 .647754
-1.345410 4.070710 -.513480 86 106 90 .552720 -.364118 .719106
-.988650 4.427470 -.156720 246 82 154 .386516 -.530322 .552902
-1.819670 3.596450 -.988040 97 216 91 .125338 -.791498 .291726
-3.125560 2.290560 -2.293620 185 171 75 -.469162 .614062 -.302776
3.902240 -.681940 4.734180 187 153 190 .113680 -.803156 .280068
-3.183850 2.232270 -2.351910 23 119 52 -.509446 .573778 -.343120
3.700520 -.883670 4.532450 67 151 148 .707266 -.209572 .873652
-.215920 -4.800110 .616010 48 166 35 -.248940 .834284 -.082554
-4.996950 .419170 -4.165020 13 53 112 -.355938 .727224 -.189612
4.468060 -.116130 -4.700310 66 143 239 .785882 -.130956 .952268
.177150 -4.407030 1.009090 100 140 250 -.191688 .891536 -.025362
-4.710990 .705130 -3.879060 226 91 97 -.322062 .761162 -.155736
4.637440 .053250 -4.530940 152 241 223 .156772 -.760064 .323160
-2.968690 2.447430 -2.136760 76 27 172 .565904 -.350934 .732290
-.922730 4.493390 -.090800 138 52 89 .468488 -.448348 .634876
-1.409810 4.006310 -.577870 92 29 72 .942808 .025970 -.890866
.961790 -3.622400 1.793720 198 208 95 -.544298 .538926 -.377912
3.526560 -1.057620 4.358500 168 181 230 -.387738 .695486 -.221352
4.309360 -.274820 -4.859010 188 212 78 .472518 -.444320 .638904
-1.389670 4.026450 -.557730 216 153 213 .666310 .777274 -.139562
4.718000 .133820 -4.450370 78 76 120 -.808834 .274390 -.642508
2.203580 -2.380600 3.035520 45 130 26 .965880 .049042 -.867794
1.076840 -3.507340 1.908780 208 128 1 .684376 -.232460 .850764
-.330370 -4.914860 .501260 219 170 255 .782218 -.134618 .948606
.158540 -4.425650 .990470 44 53 251 -.899656 .183568 -.733270
1.749770 -2.834410 2.581710 152 103 233 -.757196 .326028 -.590808
2.462080 -2.122110 3.294010 197 223 148 -.026338 -.943176 .140048
-3.883940 1.532180 -3.052010 153 236 186 -.562732 .520492 -.396344
3.434400 -1.149790 4.266330 84 90 217 -.587268 .495956 -.420942
3.311410 -1.272780 4.143340 207 252 254 -.275614 .807610 -.109226
4.869990 .285800 -4.298690 208 175 89 -.787410 .295814 -.621022
2.311010 -2.273180 3.142940 30 17 191 .196508 -.720330 .362894
-2.770020 2.646100 -1.938080 36 234 178 -.573536 .509688 -.407210
3.380070 -1.204110 4.212010 234 67 176 .477156 -.439682 .643542
-1.366470 4.049650 -.534540 55 9 198 -.149390 .933834 .016998
-4.499200 .916920 -3.667260 45 247 13 -.190344 .892880 -.023958
-4.703980 .712140 -3.872040 156 151 46 -.764154 .319070 -.597768
2.427280 -2.156900 3.259220 242 25 102 -.266030 .817132 -.099704
4.917600 .333410 -4.250780 225 99 40 -.454146 .629078 -.287760
3.977320 -.606870 4.809250 230 117 45 .270180 -.646658 .436566
-2.401350 3.014770 -1.569420 79 126 14 -.994996 .088228 -.828610
1.273070 -3.311110 2.105010 102 104 189 .180088 -.736748 .346476
-2.851810 2.564310 -2.019870 168 90 25 .749626 -.167212 .916012
-.004120 -4.588310 .827810 42 248 56 .310158 -.606678 .476546
-2.201460 3.214660 -1.369520 24 200 0 .378154 -.538684 .544540
-1.861480 3.554640 -1.029550 129 32 107 -.014070 -.930968 .152256
-3.822910 1.593210 -2.990970 117 44 178 .333230 -.583606 .499618
-2.086100 3.330020 -1.254160 189 208 153 -.326946 .756278 -.160558
4.613330 .029140 -4.555050 140 15 54 .589220 -.327618 .755606
-.806150 4.609970 .025780 60 234 225 .397686 -.519152 .564072
-1.764130 3.651990 -.932190 9 6 127 .321024 -.595814 .487410
-2.147130 3.268990 -1.315200 48 74 146 -.523484 .559738 -.357098
3.630630 -.953560 4.462560 50 130 181 .833246 -.083592 .999632
.413980 -4.170210 1.245910 21 153 178 .699880 -.216958 .866266
-.252850 -4.837040 .579080 154 2 54 .790886 -.125950 .957274
.202180 -4.382010 1.034110 124 125 128 .977050 .060212 -.856626
1.132990 -3.451190 1.964930 116 199 109 -.538012 .545212 -.371624
3.558000 -1.026190 4.389930 140 96 181 .361064 -.555774 .527450
-1.947240 3.468880 -1.115300 37 238 39 -.994874 .088350 -.828486
1.273680 -3.310500 2.105620 109 228 221 .049592 -.867246 .215978
-3.504290 1.911830 -2.672360 83 163 12 -.433822 .649402 -.267434
4.078950 -.505240 4.910880 113 197 236 -.824642 .258582 -.658254
2.124540 -2.459640 -.795780 124 205 113 -.915404 .167820 -.749016
1.671040 -2.913150 2.502970 195 175 8 .944638 .027802 -.889036
.970940 -3.613240 1.802880 220 90 145 .756462 -.160376 .922848
.030060 -4.554130 .861990 224 87 34 .462934 -.453902 .629322
-1.437580 3.978240 -.605950 37 29 248 .789482 -.127354 .955870
.195160 -4.389020 1.027100 25 216 199 -.863584 .219640 -.697196
1.930140 -2.654050 2.762070 93 215 162 -.791560 .291664 -.625234
2.289950 -2.294230 3.121890 7 32 86 .642810 -.274026 .809198
-.538200 4.877920 .293430 226 221 25 -.785700 .297524 -.619314
2.319550 -2.264630 3.151180 132 246 135 .320046 -.596790 .486372
-2.152320 3.263800 -1.320390 86 138 157 -.722526 .360698 -.556140
2.635420 -1.948760 3.467360 173 219 218 -.264322 .818902 -.097934
4.926450 .342260 -4.241930 14 77 26 .468062 -.448776 .634448
-1.412250 4.003870 -.580310 251 213 105 -.123326 .959898 .043060
-4.368880 1.047240 -3.536950 49 20 112 -.745232 .337930 -.578906
2.521590 -2.062600 3.353520 114 230 58 .616870 -.299968 .783256
-.667900 4.748220 .164030 173 114 99 -.855954 .227270 -.689566
1.968290 -2.615900 2.799920 121 193 253 -.134680 .948544 .031708
-4.425650 .990470 -3.594020 177 164 40 .569810 -.347026 .736198
-.903200 4.512920 -.071270 214 245 221 -.424544 .658680 -.258158
4.125330 -.458850 4.956960 65 96 109 .147006 -.769830 .313332
-3.017520 2.398600 -2.185590 227 165 203 -.646474 .436750 -.480088
3.015680 -1.568500 3.847620 42 30 75 .506026 -.410810 .672414
-1.222120 4.193700 -.390490 250 139 108 -.504502 .578722 -.338116
3.725240 -.858950 4.557170 92 54 125 -.813228 .269996 -.646840
2.181920 -2.402270 3.013850 169 215 149 -.348552 .734610 -.182228
4.504980 -.079200 -4.663390 116 0 229 .239660 -.677176 .406048
-2.553950 2.862170 -1.722010 40 40 245 .720328 -.196510 .886714
-.150610 -4.735100 .681020 249 231 16 .003874 -.912962 .170262
-3.732880 1.682940 -2.901250 46 175 93 -.240090 .843134 -.073704
-4.952700 .463110 -4.121070 159 4 98 -.233926 .849298 -.067538
-4.921880 .494240 -4.089940 19 65 206 .413128 -.503708 .579514
-1.686610 3.729510 -.854680 139 190 20 -.613392 .469832 -.447006
3.181090 -1.403090 4.013030 232 221 40 .346658 -.570178 .513046
-2.018960 3.397160 -1.187020 103 133 33 .275002 -.641896 .441328
-2.377550 3.038570 -1.545610 223 243 57 .226416 -.690422 .392742
-2.620480 2.795640 -1.788540 209 159 219 .045074 -.871762 .211462
-3.526880 1.889240 -2.694940 69 119 127 -.438216 .645008 -.271830
4.056970 -.527210 4.888600 101 162 195 -.462998 .620226 -.296610
3.933070 -.651120 4.765000 222 118 204 -.908202 .175022 -.741814
1.707050 -2.877140 2.538980 111 13 207 .401776 -.515062 .568162
-1.743370 3.672750 -.911440 83 211 186 -.994202 .089022 -.827876
1.276740 -3.307450 2.108670 10 35 71 .865596 -.051242 -.968078
.575730 -4.008460 1.407660 31 83 142 .944638 .027802 -.889036
.970940 -3.613240 1.802570 60 238 230 -.636282 .446942 -.469894
3.066650 -1.517540 3.898580 30 25 251 -.837520 .245704 -.671134
2.060450 -2.523730 2.892390 75 29 215 -.785944 .297280 -.619558
2.318330 -2.265850 3.150270 167 84 224 .192968 -.723870 .359354
-2.787410 2.628710 -1.955780 91 16 211 -.862850 .220374 -.696464
1.933500 -2.650690 2.765430 216 151 250 .609178 -.307658 .775566
-.706360 4.709760 .125580 28 86 95 .973570 .056732 -.860104
1.115600 -3.468590 1.947530 124 62 33 .747062 -.169776 .913448
-.016940 -4.601130 .814990 11 106 0 .147434 -.769404 .313820
-3.015080 2.401040 -2.183450 186 210 134 .316690 -.600208 .483016
-2.169110 3.247010 -1.337170 157 105 225 -.968872 .114352 -.802486
1.403690 -3.180800 2.235320 101 63 16 -.581532 .501692 -.415144
3.340400 -1.243790 4.172330 62 35 61 -.872616 .210608 -.706230
1.884970 -2.699520 2.716600 171 96 198 -.648306 .434918 -.481918
3.006220 -1.577960 3.838160 21 170 138 -.346600 .736624 -.180212
4.515060 -.069130 -4.653310 115 40 239 -.496384 .586840 -.329998
3.766130 -.818050 4.598070 235 83 56 .435956 -.480882 .602342
-1.572470 3.843650 -.740540 165 119 67 -.705802 .377422 -.539416
2.719040 -1.865140 3.550980 162 198 131 .756034 -.160804 .922420
.027920 -4.556270 .859850 62 90 107 -.637136 .446088 -.470750
3.062370 -1.521810 3.894310 35 138 171 -.330424 .752800 -.164100
4.595620 .011440 -4.572750 210 68 165 .709706 -.207130 .876094
-.203720 -4.787900 .628220 172 49 136 -.849666 .233558 -.683280
1.999720 -2.584460 2.831650 238 129 61 .836420 -.080418 -.997254
.429540 -4.154640 1.261480 228 20 87 .657094 -.259744 .823480
-.467090 4.949030 .364840 121 252 63 .822442 -.094394 .988830
.359960 -4.224220 1.191900 29 63 57 .163548 -.753290 .329934
-2.934510 2.481610 -2.102880 0 3 144 .142124 -.774714 .308510
-3.041630 2.374490 -2.209700 176 249 179 .733756 -.183082 .900142
-.083780 -4.667960 .748160 155 179 76 .118990 -.797846 .285378
-3.157300 2.258820 -2.325360 82 14 51 -.390546 .692678 -.224160
4.295320 -.288860 -4.873050 197 53 32 .485030 -.431808 .651416
-1.327100 4.089020 -.495170 220 198 99 -.226846 .856378 -.060458
-4.886480 .529640 -4.054850 91 238 246 .638782 -.278116 .805108
-.558650 4.857470 .273290 207 42 220 -.880186 .203038 -.713798
1.847130 -2.737060 2.679060 169 82 38 .634570 -.282266 .800958
-.579400 4.836720 .252230 167 13 106 -.515184 .567978 -.348858
3.671830 -.912360 4.503760 33 249 26 -.319560 .763664 -.153174
4.650250 .066070 -4.518120 181 238 1 .812554 -.104282 .978942
.310520 -4.273660 1.142460 55 43 246 .700002 -.216836 .866388
-.252550 -4.836730 .579390 17 173 30 .455610 -.461228 .621996
-1.474200 3.941920 -.642270 124 249 204 .071382 -.845456 .237768
-3.395650 2.020470 -2.563710 243 171 33 .694264 -.222572 .860652
-.280930 -4.865110 .551010 223 158 101 -.251382 .831842 -.084996
4.991140 .406960 -4.177530 104 209 223 -.168128 .915036 -.001802
-4.593190 .822930 -3.761260 202 192 156 .338052 -.578784 .504440
-2.062290 3.353830 -1.230360 62 138 134 .387370 -.529466 .553758
-1.815400 3.600720 -.983460 117 199 235 .108004 -.808834 .274390
